# .PCD v.7 - Point Cloud Data file format
VERSION .7
FIELDS x y z
SIZE 4 4 4
TYPE F F F
COUNT 1 1 1
WIDTH 1413
HEIGHT 1
VIEWPOINT 0 0 0 1 0 0 0
POINTS 1413
DATA ascii
-0.0002109708 0.00592893 0.1193692
0.003149958 0.005208788 0.1060514
-0.0006246109 0.006031859 0.1096189
0.002063275 0.004303786 0.1059322
0.02344038 -0.001752532 0.1451278
-0.0005674645 0.005501463 0.1103012
0.01962181 -0.0006968895 0.1393314
0.02668136 -0.006616843 0.1414467
0.03076285 -0.006292474 0.1428982
0.02452118 -0.003354734 0.1433453
0.02358571 -0.001535585 0.1443676
0.02145744 -0.001996979 0.140987
0.02606138 -0.006245141 0.1415501
0.02693452 -0.00143816 0.1549274
0.002807141 0.004329235 0.105654
-0.0005027234 0.009576233 0.111957
0.02876016 -0.005099429 0.1432428
0.02335626 -0.002599061 0.1462054
0.02818789 -0.005727214 0.1439341
-0.0002821956 0.005348169 0.1170497
0.02816318 -0.006822183 0.1447553
-0.0005581291 0.005009972 0.1101037
-0.01888534 0.01374644 0.1112159
0.02712667 -0.003570982 0.1503048
0.02418299 -0.003300258 0.140112
0.02308129 -0.0008917918 0.1438794
0.01516873 0.001056388 0.1604286
0.02507621 -0.003624388 0.1423631
-0.05022394 0.01469775 0.1868393
-0.00108579 0.009009799 0.1116664
0.0258678 -0.004677443 0.14258
0.01906949 -0.0006146444 0.1667823
0.03059706 -0.006699389 0.1452216
0.02463745 -0.002382323 0.1501376
0.02176446 -0.0002193437 0.1452544
0.02563061 -0.001899622 0.1738437
0.02817605 -0.00533975 0.1448652
-0.01666713 0.01177389 0.1108979
-0.00231703 0.009318124 0.09811684
-0.03875158 0.01172277 0.1403275
0.02944929 -0.005389682 0.1447912
-0.0008423926 0.01077731 0.1026231
0.002074677 0.002854739 0.1135311
0.001603248 0.003862524 0.106571
0.0002281669 0.004945739 0.1066965
0.02831549 -0.006537836 0.14329
0.02086449 0.0009182832 0.1757688
0.0205957 -0.001118469 0.1684806
0.01819513 0.0008768163 0.1692552
-0.0009728049 0.00682518 0.1107876
0.02170318 -0.0001910728 0.133062
-0.01669529 0.01041219 0.1025167
0.02343086 -0.002609866 0.1622286
0.001786632 0.004178786 0.1069282
0.02444432 -0.003297955 0.1432899
0.01118116 0.002928673 0.1432989
-0.001291234 0.01087361 0.1046742
0.03457236 -0.008046976 0.1382401
-0.001102967 0.008519731 0.1136116
0.02992605 -0.004285362 0.1529244
0.02785685 -0.006949661 0.1429215
-0.002634641 0.008595643 0.09459481
0.03019512 -0.005603222 0.1439691
-0.0002433048 0.005659846 0.1083905
0.00096697 0.003497223 0.134225
0.003617134 0.00440117 0.1089876
0.01487557 0.03038156 0.1328855
0.02918819 -0.005753178 0.1446645
0.0001127847 0.004546485 0.1069505
0.001619994 0.003465275 0.106266
0.02064138 -5.932022e-05 0.1460852
0.02506543 0.02406355 0.1222455
0.01517202 0.002467036 0.1563058
-0.001835536 0.008834144 0.0965595
0.03001483 -0.00558168 0.1429512
0.02548124 -0.001565563 0.1467813
-0.01713462 0.01053959 0.1035004
-0.03965513 0.008699476 0.1448647
0.02302841 -0.000886985 0.1434589
0.03095691 -0.00622533 0.1442699
0.003473273 0.00487697 0.1064522
0.02752149 -0.00342246 0.1487209
0.02043119 -0.002674935 0.1525528
0.02810164 -0.006177014 0.1415773
0.0004340849 0.005533506 0.1109987
0.0009075998 0.007807891 0.09858196
0.0001920046 0.01018598 0.1196439
-0.0005208799 0.008883696 0.1106799
0.0006249326 0.003891185 0.1066283
-0.007620248 0.01306338 0.102151
0.0004014163 0.004447433 0.1074858
0.01512885 0.0307162 0.1338113
0.02597851 -0.002243712 0.1467561
0.0003902592 0.0108857 0.1238672
-0.02146191 0.01238905 0.1136325
0.0002739468 0.003950521 0.107084
0.002597713 0.004706948 0.1059314
0.02048683 -0.002036812 0.1521114
0.02435879 -0.0004272188 0.1455721
0.0269936 -0.003464175 0.1503204
0.03002311 -0.005098157 0.1430936
0.002779207 0.003926459 0.1076064
-0.002101301 0.01013095 0.100072
0.002138298 0.004688093 0.1066906
-0.0009047423 0.008142056 0.1121003
0.01900763 0.0006547736 0.1725315
-0.03265577 0.01668397 0.1298144
0.001486606 0.007778554 0.106322
0.001217464 0.004573327 0.1125489
0.02404841 -0.0006078648 0.1473828
0.02587094 -0.002719879 0.1485098
-0.008506296 0.01176189 0.09049739
0.007618408 0.003645422 0.1254922
0.01446875 0.002610897 0.1525548
0.03005657 -0.006088892 0.1436024
-0.001069968 0.006660186 0.1030525
0.0005596424 0.004072482 0.1071546
0.02776334 -0.00649082 0.1448262
0.02733807 -0.003372627 0.1499289
-0.0005111276 0.006423809 0.1075864
0.01313025 0.003003612 0.1512742
0.02701467 -0.006325674 0.1436036
0.02849739 -0.006093296 0.1430364
0.0003561708 0.004121537 0.1067363
-0.02048147 0.01320716 0.1181753
-0.04008992 0.006114201 0.1434523
-0.0008887632 0.006419955 0.1066064
0.01945238 0.0008393624 0.1470473
0.04018337 -0.002971799 0.2187256
-0.001826006 0.008640898 0.1039511
-0.0008645846 0.007605241 0.1092153
0.02383481 -0.003491988 0.1409987
-0.02570825 0.02374161 0.1693076
0.002460872 0.003569556 0.1120829
-0.04205452 0.02620952 0.1511702
-0.03526881 0.01435216 0.1678329
0.002046199 0.003806601 0.10873
0.02788113 -0.006576716 0.1410506
-0.0004744338 0.007423833 0.1121203
-0.03838682 0.01632605 0.1824671
0.03120174 -0.006645734 0.14537
-0.0006606031 0.00962217 0.1163057
-0.03641266 0.0210567 0.1503689
0.015548 0.002446699 0.1584563
-0.04622807 0.007405223 0.1616617
0.01712747 0.005460336 0.1178042
-0.05581489 0.004313077 0.1910861
-0.04827551 0.006880307 0.1601098
0.005762826 0.002953677 0.1305772
-0.03010187 0.01252385 0.1276976
0.02769852 0.0040071 0.1505489
-0.07692622 0.009563563 0.2091163
-0.03461051 0.01422519 0.176879
-0.03591548 0.007854002 0.1691364
-0.01497862 0.01399041 0.1296316
-0.03230654 0.01770021 0.1571239
-0.02183069 0.01219141 0.1182026
-0.05407326 0.005919496 0.170624
0.02914011 -0.004200827 0.1532428
0.02411186 -0.002744663 0.1462432
0.02829752 -0.005113317 0.17983
0.002753216 0.004979088 0.1073741
0.02944367 -0.005294203 0.1425722
-0.03549426 0.007271576 0.1708092
-0.04942694 0.004509708 0.1759678
0.002978523 0.002626676 0.1161542
0.02679952 -0.004328265 0.1356962
6.670097e-05 0.009126554 0.1101603
0.03030242 -0.005411395 0.1437317
0.02929885 -0.006215734 0.1427974
-0.001536451 0.00734384 0.1027857
0.003264176 0.003620235 0.09277298
-0.001972309 0.008290609 0.1281886
-0.0008518993 0.005997498 0.1096608
0.02823839 -0.006817513 0.1449724
-0.001114761 0.008930221 0.1096656
0.02790051 -0.004596854 0.1441018
0.02201453 -0.002114245 0.1524269
0.002119566 0.004611638 0.1057506
0.003382808 0.003846095 0.09248501
-0.0007372103 0.005881752 0.1100447
0.02720966 -0.003029466 0.1502525
0.02895724 -0.004192417 0.1515115
0.02861188 -0.00625161 0.1420266
-0.0006495717 0.006122695 0.1099205
-0.04574701 0.00465057 0.1671582
0.02854044 -0.005865059 0.1446512
0.001988488 0.004508272 0.1058184
-0.0001337694 0.01016653 0.1208949
0.0312583 -0.006514689 0.1438419
0.003398657 0.003859554 0.09249105
0.03109834 -0.006833807 0.1428865
0.002498099 0.004604747 0.09182465
0.001812611 0.004147157 0.1074164
0.02927125 -0.005314732 0.1436109
0.02459945 -0.0009203209 0.1452615
0.001649653 0.004414392 0.106335
0.03308748 -0.006700889 0.1447313
0.02818285 -0.004875321 0.1420008
-0.0002663447 0.0052778 0.1092296
0.0217472 -0.002075292 0.1712757
-0.03640094 0.01031222 0.1425446
0.001248154 0.003664358 0.1114598
0.03007715 -0.006411501 0.1440757
0.0164132 0.0005085757 0.1588878
0.01877538 0.001179099 0.149884
0.01484472 0.001616158 0.1562759
0.0224521 -0.002501027 0.1469571
0.02650067 -0.00490752 0.1387155
0.007679484 0.01918237 0.1237753
0.02216167 -0.002292925 0.1491875
0.002209897 0.003789156 0.1071972
0.003905477 0.003902983 0.09706292
0.03123892 -0.006266319 0.1423053
-0.01274483 0.01381325 0.1102701
0.02384657 -0.002788281 0.1612447
-0.0001447348 0.00699312 0.1102299
0.03087551 -0.006281509 0.1443921
0.001598836 0.00544827 0.08172703
0.0264448 -0.004532247 0.142795
0.0268434 -0.005092059 0.1423844
0.02306472 -0.002803692 0.1453211
0.02346785 -0.002779154 0.1781637
0.018335 -0.0007267541 0.1418545
0.03078328 -0.005811419 0.1430342
0.001059165 0.003442868 0.1070645
4.771652e-06 0.004744344 0.1080296
-0.0008730203 0.006011807 0.1090902
-0.0005469721 0.006067091 0.1064675
0.0125206 0.002888035 0.1433897
0.001329637 0.004278223 0.1065449
0.002795526 0.003857201 0.08773731
0.02572668 -0.00457255 0.1418874
0.01419867 0.003064953 0.1546079
0.0207099 -0.001517384 0.1464699
0.01398523 0.002439085 0.1539983
0.0237928 0.0001884774 0.1468023
0.02441855 -0.002894799 0.1468196
-0.000443589 0.005798157 0.1024969
0.0004815809 0.01039069 0.124242
0.02068619 -0.002170975 0.1695565
0.03206089 -0.006782326 0.1496875
0.006374904 0.01786992 0.1202886
0.02046338 0.001588761 0.1510231
0.003670856 0.00401622 0.09617972
0.02991828 -0.00620511 0.1440719
-4.265614e-06 0.004436308 0.1069615
0.02580065 -0.002408411 0.1492649
0.002943645 0.003286235 0.09310441
0.001148117 0.009291751 0.1085295
0.003641569 0.003684456 0.08484814
0.02569021 -0.002521268 0.1478789
-0.002321557 0.008818503 0.101949
0.01569367 0.002035515 0.1625139
0.02651102 -0.004257997 0.1440659
0.02704223 -0.005533964 0.1452481
0.02667216 -0.003918018 0.146846
0.002354982 0.004158377 0.08384084
-0.03427663 0.01504181 0.1711795
-0.04047827 0.008808996 0.1431542
-0.04018115 0.009548887 0.1431712
-0.0431052 0.009408483 0.1494622
0.002755852 0.008652374 0.1021253
0.03154986 -0.001061272 0.1885099
-0.03461314 0.01535174 0.1712412
-0.06172821 0.0003612523 0.2346082
-0.0396544 0.005366951 0.1548846
-0.04309966 0.007429051 0.1497978
-0.03299526 0.01134688 0.135397
-0.03451663 0.01490249 0.168135
-0.03782625 0.01557895 0.182972
0.02127202 -0.00192586 0.1463538
0.01926359 -0.002377434 0.1617801
0.01949277 -0.0008085896 0.143534
-0.03768316 0.01358471 0.1804287
0.002030991 0.00251157 0.1548801
-0.04790222 0.009849595 0.1656421
-0.02917789 0.01182537 0.1258662
0.00280957 0.002809001 0.1663004
0.006642522 0.00158272 0.1573823
0.01235353 0.003573213 0.1191705
-0.04722677 0.01010315 0.155672
-0.04926448 0.03051279 0.2227455
-0.04487889 0.01424864 0.1632733
0.0278031 -0.00567029 0.1447862
0.02652876 -0.004739359 0.1432776
0.0208816 0.0009286982 0.1383428
-0.0005764273 0.006821515 0.1073122
0.001156087 0.00285974 0.1320255
-0.113758 0.05617088 0.2843016
-0.1354085 -0.009264852 0.4139244
0.0004693067 0.006350739 0.1241289
0.002997175 0.004278798 0.0836725
0.002541092 0.004200967 0.106766
0.0008958672 0.009097344 0.1051908
-0.002145364 0.009514659 0.1009727
0.003529974 0.003825668 0.08394456
-0.0007638835 0.01205956 0.1255238
0.003505053 0.003793447 0.08403164
0.03014332 -0.004961147 0.1403203
0.03348264 -0.007338211 0.1501825
-0.01313343 0.009108707 0.09537037
0.00451269 0.00422723 0.1115516
0.00262867 0.004388755 0.1072137
0.001643276 0.003405029 0.106379
0.02721252 -0.002162223 0.15553
-0.04022367 0.009558873 0.1593119
0.002944332 0.001359592 0.1300118
0.003040492 0.003550909 0.09291703
0.003255596 0.004172463 0.107232
0.003044988 0.003287195 0.09292488
0.1138417 0.1508103 0.4984232
-0.0007409584 0.008822663 0.1124454
-0.04030618 0.01064221 0.1490688
-0.03606172 0.01310807 0.1732373
0.0002574567 0.005089047 0.1097876
0.0025042 0.004608221 0.09171736
0.003224028 0.003846114 0.08391707
0.02667451 -0.003197548 0.1496679
0.003171287 0.004846613 0.1075622
-0.0007677754 0.00879302 0.1088507
-0.0006081419 0.005099693 0.105938
0.003410019 0.004875626 0.103804
0.0003102456 0.003890839 0.1076067
0.02932791 -0.004568226 0.141674
0.003706068 0.004109779 0.09252916
0.02131673 -0.002407892 0.1425011
0.002098442 0.004888786 0.09021968
0.003051654 0.00340013 0.09269779
0.0325988 -0.006473988 0.1435883
0.003596761 0.003742407 0.08421231
0.002775915 0.004344283 0.08376763
3.125296e-05 0.004578216 0.1096394
0.002574386 0.00449062 0.08371963
0.03061075 -0.005290291 0.1423852
0.02131377 -0.001623773 0.1226073
-0.0006423066 0.00623054 0.1085493
0.0190335 5.416588e-06 0.1423064
-0.0005407706 0.004971489 0.1107525
0.003154897 0.003501532 0.09289617
0.003260716 0.004412622 0.1069248
0.0258193 -0.004285146 0.144476
0.0008229488 0.004823378 0.1078312
0.0001915737 0.01099233 0.1234216
0.00307998 0.004068859 0.08356885
0.00309575 0.00391714 0.08393071
-0.03995865 0.00964718 0.1457761
0.002899192 0.003953369 0.1099169
0.02450089 -0.00295547 0.1578075
-0.03759644 0.009667335 0.1466448
0.03435527 -0.007173615 0.1863697
-0.03501075 0.01513366 0.1757161
-0.0005141023 0.006751 0.1087656
-0.09254568 0.04961407 0.2501965
-0.07330789 0.002534178 0.2286001
0.001181408 0.007698501 0.09980487
0.002054663 0.003762865 0.1064529
0.03499026 -0.009264372 0.1424034
0.003062452 0.003700482 0.08427994
-0.04150229 0.007737659 0.1464778
0.003094243 0.003914373 0.08391463
0.008918611 0.00472056 0.1281648
-0.03893459 0.006356782 0.1454663
0.0255802 -0.004309614 0.1430048
0.002810311 0.003851832 0.08351327
0.0001877046 0.01117394 0.1233647
0.03028683 -0.005286413 0.1423374
0.05988958 0.006659484 0.1840344
0.002499369 0.00408257 0.08385763
0.002377971 0.00433943 0.1067849
-0.0005270476 0.006160621 0.1100959
0.002651922 0.004811832 0.1069022
0.003639254 0.00425755 0.1074286
0.01941815 -0.001411128 0.1659414
0.007359275 0.003706911 0.124234
0.02500315 -0.0005799056 0.1484344
0.0002222092 0.004966034 0.1066108
0.002890053 0.003738646 0.08424507
0.003027888 0.00406481 0.0836677
0.002754748 0.004205565 0.08389656
-0.0008150037 0.01164235 0.1214918
0.003161449 0.003635807 0.08446722
0.007236087 0.003670911 0.123781
0.002978907 0.003827528 0.08386236
0.01914291 -0.0001782308 0.1587341
0.01771925 -0.001920791 0.1525357
0.002973401 0.004927768 0.1062495
0.003087732 0.003920877 0.08390726
-0.0374376 0.01019462 0.1437893
0.003185173 0.005507412 0.1073427
-0.03904698 0.006297659 0.142046
-0.008237898 0.01248995 0.09100737
0.003000159 0.003282753 0.09310474
0.02038757 -0.001807019 0.1704841
-0.0008197511 0.01208549 0.1257268
-0.001827915 0.01062288 0.1056267
0.02110072 -0.001923062 0.1467309
0.002059104 0.004738298 0.1061478
0.0314482 -0.005936253 0.1422464
0.00574202 0.003668196 0.1183259
0.002453839 0.004637382 0.1061523
0.0007388382 0.003687503 0.106717
0.03249883 -0.006276371 0.1450855
0.03614193 0.00109656 0.1746316
0.0313844 -0.006669683 0.1447389
0.002006969 0.003829319 0.1070831
-0.0354241 0.01513724 0.1881652
0.002744215 0.004456394 0.1061265
0.001597087 0.004459062 0.1056048
0.02118097 -0.0005859975 0.1431743
-0.0005876173 0.01173705 0.1092045
0.031725 -0.00568018 0.1415725
0.02792841 -0.006398393 0.1434087
-0.0003523522 0.01118949 0.1204133
-9.184873e-05 0.0109855 0.1188746
9.508513e-05 0.004543399 0.1087037
-0.0145466 0.009898606 0.1009153
0.002825364 0.00417497 0.08365986
-0.0005862661 0.006330879 0.1115899
0.003095512 0.003504639 0.09308423
0.002431596 0.003919139 0.1071088
-0.0002129747 0.006967722 0.1089871
-0.0005038271 0.007405399 0.1110731
-0.03986695 0.0092406 0.1435166
0.001110668 0.003404782 0.1076022
-0.04522363 0.003284624 0.2180677
-0.004152856 0.003394025 0.1346212
-0.03870173 0.006554523 0.1419055
0.003030279 0.003310248 0.09287288
-0.0002248256 0.005942924 0.113034
-0.03908777 0.00695405 0.1453952
0.002839678 0.004441603 0.08402384
0.002619877 0.004070226 0.1064821
0.03072955 -0.006327792 0.1428944
0.0003775144 0.00368044 0.106801
0.001577224 0.00459572 0.1059265
0.0369457 -0.006636224 0.1988471
-0.04619648 0.01115033 0.1607005
-0.03728385 0.01550842 0.1947303
-0.1833128 -0.005501679 0.4337026
-0.06275811 0.01796074 0.2664255
0.05614467 -0.01663965 0.335834
-0.03409739 0.01589471 0.1781499
0.00160194 0.004613275 0.1053876
-0.01721199 0.01862574 0.1465138
0.002915803 0.004185481 0.1065348
0.00107307 0.003429392 0.1071933
-0.0156093 0.01021304 0.1029268
2.566881e-05 0.004393522 0.1073278
0.03032128 -0.005200456 0.1428877
0.002239954 0.004231092 0.08332106
-0.0007145667 0.01176522 0.1228511
0.002785752 0.004067526 0.08432843
-0.03672474 0.007457132 0.1486973
-0.001252894 0.01114837 0.1131637
-8.45472e-05 0.004938905 0.1090259
0.0035271 0.005845686 0.1069629
0.02441897 -0.00387104 0.1299778
0.02978128 -0.005787298 0.1447613
2.631802e-05 0.01090122 0.1206299
-0.0009397317 0.006930445 0.09867652
0.03262761 -0.006474517 0.1435733
0.02472835 -0.001453343 0.145016
0.02922687 -0.007079512 0.1435252
0.001260001 0.004741558 0.1070981
-3.896133e-05 0.01175065 0.1263601
-0.0004885717 0.005756868 0.1101006
0.0306362 -0.004941404 0.1428503
0.02777767 -0.003657106 0.1513623
0.002346431 0.004363389 0.106567
-0.04456648 0.00292168 0.1515104
0.02218896 -0.002775945 0.1450477
0.01846227 6.932768e-06 0.1596253
-0.0006896926 0.01161885 0.1213736
0.004008323 0.003399678 0.08684709
0.0004915316 0.01187411 0.1276032
0.03109847 -0.005675141 0.1415529
-0.0002149971 0.004769717 0.1088475
0.000940779 0.008247714 0.1079675
0.0002976825 0.00414695 0.1087365
0.003011089 0.003212719 0.09340916
-0.01463095 0.004386263 0.1068396
0.003229616 0.00365478 0.09264968
0.01841171 -0.002805306 0.1530218
0.003250261 0.003615338 0.09276111
0.03363037 -0.006772056 0.1415526
-0.01454249 0.004898698 0.1035367
0.02302557 -0.002473721 0.1452269
-0.03856984 0.005377071 0.1446023
-0.001271851 0.01154447 0.1177013
0.003758774 0.005031677 0.1066814
0.01725026 -0.002042985 0.1525731
0.02425614 -0.0006163464 0.1476698
0.02758595 -0.006443072 0.1457683
-0.000716713 0.0130712 0.1391138
0.03242182 -0.00650444 0.1404676
0.0263046 -0.004195396 0.139713
0.03365695 -0.006824845 0.1414134
0.03065307 -0.007039955 0.1461454
-0.01491833 0.009686255 0.1011155
0.003540047 0.003333637 0.09038156
0.02091481 -0.002417479 0.1640045
0.03127179 -0.005081919 0.1443045
-0.03793439 0.008589378 0.1426412
0.02788199 -0.004665918 0.1453309
0.0314853 -0.005886966 0.1461617
0.0233396 -0.00222961 0.1513758
0.01852258 -0.001875476 0.1526592
0.02450181 -0.002947999 0.1472001
-0.0005815678 0.007383284 0.1092217
-0.01564058 0.009777339 0.1012994
0.02372361 -0.0005306751 0.1464522
0.01447888 0.001824189 0.1587733
0.03385319 -0.006853048 0.1423298
0.003249616 0.003276688 0.09324076
0.00303618 0.003235393 0.093316
-0.06252768 0.02341496 0.2865956
0.0007498093 0.003688351 0.1065003
-0.0002817727 0.005685091 0.1081362
0.03347714 -0.006911437 0.1436184
0.03362058 -0.006799686 0.1415223
-0.03950515 0.006673664 0.1471438
-0.03252943 0.01513382 0.1583857
-0.03716877 0.008315533 0.1503846
0.02330337 -0.003843217 0.1756409
0.00303938 0.003533993 0.09291374
0.01832542 -0.002137654 0.1523921
0.0001179037 0.004481494 0.1079964
-0.0353424 0.007984499 0.1442114
0.002425199 0.004172111 0.106521
0.03308887 -0.007766377 0.1501714
0.03283511 -0.006311348 0.1398953
0.003231919 0.004621372 0.1065689
0.002225755 0.004012745 0.1074768
0.002432671 0.003916335 0.1074841
0.03554756 -0.008454615 0.1420031
0.02864681 -0.00626146 0.1420569
0.0008897046 0.00398413 0.1073828
-0.001298437 0.007215424 0.1019985
-0.01442721 0.004584557 0.1047496
0.01274279 0.002386991 0.1465064
0.03189215 -0.006294547 0.141655
0.02122138 -0.001962336 0.1471155
-0.03753065 0.0166782 0.199679
-0.0581443 0.0005196187 0.2227245
-0.07831315 -0.001540871 0.2825453
0.005361344 -6.610211e-06 0.147312
-0.1170744 -0.006534601 0.3625341
0.04112373 -0.009613154 0.2483667
-0.1023709 -0.002338214 0.3107612
-0.03851192 0.01497879 0.1765829
0.03906611 -0.01057504 0.2344734
-0.0456461 0.003603793 0.220281
0.003711213 0.0009328512 0.1501846
0.03917985 -0.008567641 0.2065678
-0.06783957 0.00303942 0.2665928
0.01901597 -0.003000986 0.1548446
0.001131239 0.00745061 0.1619495
0.03522914 -0.008303493 0.142684
0.03158838 -0.005686461 0.1454775
0.02776347 -0.003207471 0.1578297
0.03586236 -0.00799453 0.1559354
0.0004144894 0.003944919 0.1125492
0.00318345 0.005200747 0.106213
0.03237596 -0.006609742 0.1416276
0.0008860148 0.007829939 0.09824922
0.002632024 0.005106315 0.1047267
0.0009155933 0.004016681 0.1034571
0.03153668 -0.005878142 0.1403713
0.001134301 0.004022233 0.1063612
0.002198904 0.004381213 0.106361
0.0008583293 0.004143286 0.1073596
0.02891212 -0.004285107 0.1443838
0.03593396 -0.009073407 0.1436035
0.03060321 -0.004686801 0.1422429
0.02726015 -0.004412925 0.1439724
0.02068039 -0.003541202 0.159815
-0.01592571 0.01024013 0.1035336
-0.01481331 0.005549361 0.102017
0.000976296 0.004138551 0.1105859
0.003273051 0.004464025 0.1068142
0.03212461 -0.006753074 0.1415673
0.00306592 0.003538247 0.09302098
0.03691062 -0.009279089 0.1426488
-0.036333 0.01351232 0.158094
0.01116948 0.00387822 0.1382276
0.0313297 -0.005845113 0.1400896
0.002449682 0.004257784 0.1061014
0.03437715 -0.008417556 0.1377819
0.0002666193 0.004707959 0.1144147
0.003688404 0.004218092 0.1073706
-3.669598e-05 0.004436929 0.1066845
0.003223527 0.003250198 0.09358556
0.001643944 0.003578002 0.1066664
-0.01511999 0.01602078 0.1268004
0.003419959 0.005121006 0.1075589
0.03367815 -0.008227667 0.1354604
0.01889508 -0.002627416 0.1520634
-0.01475266 0.01612968 0.1285231
-0.04831205 0.005951945 0.1767696
-0.0407614 0.007883308 0.1571811
-0.04230129 0.01557265 0.1918501
-0.1323909 -0.006657683 0.4360946
0.006041002 0.005211589 0.1189801
0.03564413 -0.009265441 0.1394686
0.001466613 0.00343864 0.1074682
0.001263763 0.003492522 0.107499
0.001729268 0.004155764 0.1059034
-0.001302781 0.0115412 0.1144006
0.002085777 0.004435949 0.1058694
0.03614908 -0.008631217 0.1431389
0.03057257 -0.005300443 0.1419279
0.0348182 -0.006171619 0.1494128
-0.001288373 0.0115891 0.1147267
-0.0365701 0.01297663 0.1480472
-0.0375539 0.007061358 0.144705
-0.05087966 0.004204815 0.2375828
0.05067391 -0.01548884 0.2810826
0.002571004 0.009216194 0.1254483
-0.09458791 0.00158186 0.2564522
-0.1204558 0.0003385643 0.3068796
0.02042613 -0.003158894 0.1552891
-0.00364262 0.006385953 0.1216039
0.1340544 0.07655863 0.3237143
-0.0006975602 0.008902761 0.1146609
-0.03640813 0.006640485 0.1407666
0.00104297 0.003479239 0.1068578
-0.00183217 0.00996883 0.1031987
2.646133e-05 0.004985974 0.104258
0.003363762 0.004265467 0.1077626
-0.01152946 0.009793232 0.1031097
-0.03434266 0.006372311 0.1359162
-0.005914916 0.01046437 0.09021907
-0.03681113 0.01172612 0.1479729
0.007385355 0.003842098 0.1223711
-0.03586747 0.008125154 0.1767371
0.03059967 -0.004913175 0.2138395
0.004257569 0.005575135 0.1099517
0.0247179 -0.004767827 0.1363552
-0.001829175 0.01112608 0.1137731
-9.731577e-05 0.0049681 0.1063406
0.02505654 -0.003725394 0.1408543
0.02676878 -0.00665389 0.1434824
0.002233136 0.004529162 0.1064792
0.0269972 -0.006688606 0.1433698
0.03147427 -0.006303875 0.140333
0.02753806 -0.005077169 0.1360419
0.01841471 -0.00178102 0.1494403
0.001655745 0.003414597 0.1064812
0.003036472 0.005373899 0.1061895
0.0006798796 0.003885998 0.1071378
0.0234766 -0.0003770092 0.1453838
0.02778286 -0.004609434 0.1449977
0.009928263 0.003391574 0.133736
0.03090037 -0.006705596 0.1422966
-8.476609e-06 0.006429169 0.1087008
0.03165667 -0.006581525 0.1426814
0.0005831839 0.003900302 0.1063241
0.002641558 0.00376743 0.1070701
0.0300862 -0.004895958 0.1537925
0.03250258 -0.006980147 0.1433918
0.0315917 -0.00705532 0.1433832
0.02843679 -0.004643337 0.1430735
0.02784701 -0.005705695 0.1464537
0.03560903 -0.008461287 0.1422064
0.01240879 0.001330087 0.1412217
0.02736368 -0.006324277 0.1452817
0.02924156 -0.006529782 0.1425967
-0.009437471 0.009666301 0.09792187
0.02722569 -0.003762494 0.1438272
0.03193684 -0.005666332 0.1442329
-0.006250034 0.01069157 0.09049889
0.002964052 0.003287716 0.09306627
0.000496351 0.01095853 0.1257429
-0.04041481 0.01497542 0.1914058
-0.0003736365 0.004705704 0.110558
0.0322642 -0.006879877 0.1428949
0.03280047 -0.006643203 0.1433038
0.02633714 -0.003634883 0.1452622
0.02766478 -0.002911429 0.1497225
-0.06395549 0.02177329 0.2514424
0.01145875 0.0001746917 0.1463323
0.001151337 0.003012555 0.1209215
-0.06006324 0.002753511 0.2495899
-0.004390962 0.002970296 0.1502815
-0.03163611 0.01401461 0.1755005
0.0462059 -0.012011 0.275932
-0.001187433 0.009684027 0.106057
0.02550612 -0.002057235 0.1390097
-0.009822566 0.01442839 0.1093754
0.03168975 -0.005962469 0.1407749
0.02810677 -0.002540467 0.1505596
0.01925579 -0.002972019 0.1536333
0.02653681 -0.002624871 0.1483288
0.002617914 0.003754644 0.1072062
0.0005193536 0.004335352 0.1069781
0.01966279 -0.002389109 0.1522795
0.0009138757 0.003518496 0.1079078
0.01171685 0.0009365872 0.1341678
-0.03398082 0.005496899 0.135714
-0.03577719 0.01271421 0.1438611
-0.03712881 0.006943225 0.1411487
-0.03614288 0.01302554 0.1721548
0.031992 -0.007874435 0.2192977
-0.01480361 0.01031796 0.1073674
0.02899845 -0.00701898 0.1434975
0.02282428 -0.004591436 0.168333
0.02555154 -0.00202201 0.1470929
-0.07556292 0.001422333 0.283736
-0.03815997 0.01223697 0.1551287
0.001368313 0.007543924 0.1472537
-0.005756646 0.01053919 0.08729499
0.003339556 0.004273265 0.1084143
-0.001854997 0.008988598 0.09812743
0.03257764 -0.009599428 0.1545038
-0.01439999 0.01017986 0.1061915
0.02834573 -0.003756127 0.1512599
0.03483627 -0.009242512 0.1412791
0.02941538 -0.007678203 0.1461927
0.03178273 -0.006169672 0.1406655
0.002679208 0.004190653 0.1060533
-0.001431509 0.007058762 0.09946399
-0.0001302036 0.0052743 0.1096101
0.03209233 -0.006379152 0.1428541
0.03431121 -0.007050178 0.1513894
0.02137172 -0.003905497 0.1671956
0.02543643 -0.001498403 0.1466312
0.02890574 -0.006987525 0.1432044
-0.04339202 0.003657129 0.2198149
0.0006661267 0.003954537 0.1067977
0.02854309 -0.005047405 0.1429193
0.03163213 -0.006146222 0.1427291
0.005754514 0.004419392 0.1177189
0.02190297 -0.003585008 0.1606898
0.02455105 -0.002824487 0.138553
-0.03651488 0.006010683 0.1405006
0.02922966 -0.004964022 0.1445804
0.03022655 -0.007155184 0.1456149
0.02905823 -0.007028804 0.143317
0.03316984 -0.007205673 0.1419358
0.002766266 0.004121625 0.1065853
0.0003453828 0.004069699 0.1070584
0.02803021 -0.004985888 0.1496144
0.002312969 0.0037191 0.1079661
0.02927302 -0.007008964 0.1442369
0.02787088 -0.005741257 0.1465422
0.02836731 -0.004025311 0.1501946
-0.0001347654 0.004711254 0.1095667
0.03432254 -0.007289194 0.1408593
2.66002e-05 0.004699186 0.105622
0.03229998 -0.00643288 0.1435003
0.002869718 0.005475144 0.1066203
0.02319867 -0.00473378 0.1699616
0.02885497 -0.006793617 0.14438
-3.150574e-05 0.004803804 0.1073866
0.002468819 0.004510619 0.1062765
-0.00029267 0.005122467 0.1117028
0.03499201 -0.008648457 0.1388626
0.02556125 -0.00306394 0.1476042
0.0305213 -0.004984499 0.1440462
0.002929417 0.004013684 0.09334403
4.297114e-06 0.00640179 0.1088943
0.003271128 0.004338825 0.1070947
0.003187598 0.0032229 0.09300071
0.03247809 -0.007454694 0.1454196
0.003046869 0.003286099 0.09294492
0.0278312 -0.006648914 0.1436151
0.02777045 -0.004566647 0.1438298
-0.06861876 -0.001150204 0.2545741
0.002372041 0.003820919 0.1069098
0.001880729 0.004519607 0.1061369
0.03529839 -0.0081005 0.1428955
0.03171184 -0.006633421 0.1427814
0.001055361 0.004017144 0.1089989
-0.03684961 0.007488066 0.1504659
0.04187585 -0.01048967 0.2568104
0.02957331 -0.004716336 0.1415071
-0.0306277 0.01297147 0.1438456
0.03555219 -0.00780472 0.1431924
0.02136581 -0.002377848 0.1525858
0.006676288 0.004013735 0.1170838
0.03920509 -0.008922176 0.2571091
0.02101463 -0.003294926 0.1570539
0.03006917 -0.005292522 0.1408496
0.0242717 -0.001324773 0.1488121
0.0008532266 0.004030741 0.1063356
0.028144 -0.007081307 0.1428957
0.02647525 -0.00247251 0.1481647
0.01732313 -0.001691028 0.1541591
0.03183317 -0.007154365 0.1439412
0.02494546 -0.003646922 0.1443809
-0.001388508 0.01169684 0.117415
0.02626119 -0.004584832 0.1424328
0.1007686 0.04611931 0.3177651
0.01966842 -0.001720458 0.1539707
0.02681083 -0.00307883 0.1467054
0.03561318 -0.008311185 0.1418399
0.01849208 -0.002818623 0.1532597
0.03509736 -0.008182966 0.1425564
0.003401145 0.003874603 0.09249079
0.003099907 0.003471277 0.09095894
0.03207633 -0.007291951 0.1444934
0.0001920021 0.004314906 0.1068918
-0.06559651 0.003190534 0.2605586
-0.03311076 0.01462476 0.1798471
0.03106796 -0.006335713 0.1404907
0.03578014 -0.007964641 0.1438128
0.02783993 -0.006943413 0.1427734
0.02225484 -0.00210095 0.1582516
-0.0008325203 0.005664244 0.1049614
0.02863279 -0.006848457 0.1426191
-0.01846915 0.0107404 0.1158589
0.02376823 -0.002679786 0.145697
0.002438311 0.003802069 0.107254
0.02809699 -0.00379008 0.1584799
0.03047262 -0.005560379 0.1409299
-0.07178207 0.04397317 0.2594975
-0.06773896 0.01966458 0.2101045
-0.09296362 -0.0008751638 0.2662433
0.03570636 -0.00931586 0.141536
0.02759484 -0.00282217 0.149562
-0.01433006 0.004938082 0.1030842
-0.03959692 0.01675748 0.1932531
-0.1043701 -0.004749317 0.3288147
-0.01708653 0.01239133 0.1309279
0.02072979 -0.002456323 0.1517722
0.02797619 -0.00321238 0.149754
0.03288042 -0.007134145 0.1430004
0.0373955 -0.00916493 0.1445629
-0.04397878 0.02470161 0.173655
0.0213573 -0.003171901 0.1551094
0.02688661 -0.004000157 0.1398091
-0.0003522475 0.004690513 0.1108532
0.001534739 0.004624445 0.1085083
0.02816093 -0.00637876 0.1426966
-0.1029774 -0.004601655 0.3252218
-0.0005496965 0.005468627 0.1107703
-0.06235901 0.02159006 0.2545807
-0.06263688 0.01764998 0.2487899
-0.08478624 0.0487504 0.2633105
0.02518007 -0.002511016 0.1513003
-0.1048686 -0.004936557 0.3305467
-0.01585014 0.01308796 0.1100827
-0.06145886 0.01868131 0.1952907
0.001908324 0.003246326 0.1342075
-0.09052166 -0.00365813 0.3123477
-0.06933256 0.001556699 0.2746614
-0.08970041 0.0583884 0.2627718
0.01183897 0.001728173 0.1216057
0.003506623 0.003312552 0.09066331
-0.03715136 0.01372673 0.1601222
-0.0003186924 0.004681704 0.1110569
0.03456933 -0.006729855 0.1489049
-0.02793469 0.01889954 0.1462056
0.02511 -0.004101382 0.1363406
0.003043074 0.003291401 0.09293206
0.02823224 -0.007161946 0.1436418
-0.0003336465 0.005837401 0.1132234
0.001842785 0.003396585 0.1089777
0.02727535 -0.00571 0.1470334
0.03177223 -0.007132489 0.1437827
0.003385437 0.00348122 0.08945606
-0.0008683487 0.006759871 0.1079404
-0.0007810334 0.006810613 0.1092116
0.003476424 0.003416842 0.08971262
0.001730219 0.004187115 0.1068083
0.02636754 -0.005314827 0.1454568
0.02742602 -0.005459149 0.1448159
-0.02859684 0.02300858 0.1524492
0.01930596 -0.002373623 0.1525214
0.002578739 0.005041082 0.1065407
0.0005626873 0.004442173 0.09934901
0.02195664 -0.001942488 0.155073
0.02454367 -0.00133391 0.1473806
0.0259424 -0.002233786 0.1448838
0.02737112 -0.005146167 0.147815
0.0004143892 0.003883351 0.1070594
-0.001221227 0.006654238 0.1094659
0.03797704 -0.007998051 0.1473177
-0.01666849 0.01596656 0.1191042
0.0004893467 0.01131018 0.1276893
0.003183404 0.003645544 0.08872396
0.002986899 0.005396708 0.1058642
0.02338959 -0.000226308 0.146554
0.03188044 -0.00621654 0.14459
-0.0008779754 0.00652739 0.1073808
0.02239455 -0.001381697 0.1519531
0.0009474153 0.00390786 0.1071865
0.03358625 -0.007135885 0.1534784
-0.003996518 0.01151851 0.09055667
0.0271598 -0.005727849 0.1861679
-0.01114662 0.01267873 0.1031608
0.03125212 -0.006171508 0.2140557
-0.03516915 0.01554702 0.1880819
-0.04953539 0.01194631 0.2240958
0.02491087 -0.004778862 0.141237
0.03033082 -0.005674774 0.1442868
0.02401072 0.03341532 0.1421444
0.02592787 -0.004392601 0.146267
0.02907101 -0.003575537 0.1434781
0.003223891 0.003593707 0.08895643
0.01989054 -0.002934818 0.1525025
-0.01998214 0.01491344 0.1211607
0.003593376 0.005448425 0.1066517
0.02258657 -0.002616272 0.1506134
0.006659074 0.006972834 0.1008871
-0.02851022 0.02099247 0.1290623
0.001769331 0.003602684 0.1062722
0.001674289 0.003682937 0.1060014
-0.008801536 0.01323523 0.1033714
0.0613557 0.04053403 0.2220322
-0.0008635221 0.005991794 0.1097008
0.02896814 -0.004228372 0.1515761
-0.03594115 0.004578389 0.144449
-0.03706784 0.0147976 0.1610003
0.03618865 -0.007641033 0.1455319
0.0004480232 0.003602275 0.1074762
0.02778563 -0.004624588 0.145076
0.02680759 -0.005505591 0.1459253
-0.06174978 0.005908165 0.2545022
0.04416743 -0.01313154 0.258561
-0.04437049 0.0163133 0.192904
-0.03854943 0.01771701 0.1898437
-0.04426435 0.01533571 0.223496
0.02708628 -0.005594719 0.1434584
0.0002736079 0.004585902 0.1049897
0.03169293 -0.005213691 0.1444149
-0.02002174 0.01790196 0.1282115
0.00319921 0.003696578 0.08758223
-0.03845272 0.01479215 0.1638981
-0.02821827 0.01450575 0.1490745
0.03195942 -0.004983013 0.1442566
-0.0004353448 0.005777425 0.1106879
-0.01142151 0.01369089 0.0989657
0.02008681 -0.001923014 0.151615
0.00229994 0.003843967 0.1070432
-0.001116171 0.007059093 0.1183315
0.003747417 0.00335749 0.08893234
0.02194455 -0.001993816 0.1549874
0.01741413 -0.002093297 0.153111
0.03257352 -0.005606636 0.1484889
-0.03742078 0.01425883 0.1609538
6.723053e-05 0.004889581 0.1083389
0.02018827 -0.002576197 0.1515942
0.03539414 -0.007981676 0.1437989
0.02523726 -0.003144497 0.1438182
-0.0005644672 0.005828368 0.1097888
0.02682392 -0.004769722 0.1456714
0.02758032 -0.006405204 0.1443546
0.03169854 -0.006631651 0.141069
-0.0003180876 0.005762758 0.1093842
0.003330963 0.003483012 0.08962975
-0.0007262313 0.00584713 0.110336
0.02951046 -0.006741666 0.1447116
-0.0008471205 0.005808282 0.1053139
0.001731773 0.003730048 0.1105477
0.001987948 0.004472201 0.1060262
-0.04785366 0.001572045 0.1932791
0.0004143633 0.0107683 0.1268534
0.01826183 0.0005098765 0.142361
0.00251449 0.00441498 0.106424
0.03270339 -0.006574769 0.1430063
-0.0001881006 0.005262967 0.1095232
0.0199048 -0.002927684 0.1623694
0.02774165 -0.006531407 0.1463107
-0.03631831 0.01404727 0.15836
0.02093892 -0.002831229 0.1531686
-0.1306026 0.078237 0.3823329
0.02742299 -0.00550288 0.145478
0.01749062 -0.001530808 0.1555763
0.002766124 0.003902295 0.107834
-0.0189769 0.02013355 0.1213457
0.02703182 -0.00493671 0.1431423
-0.08579213 -0.002992415 0.3001615
-0.0918759 -0.00139886 0.2537116
-0.07966106 -0.0003336146 0.2298553
0.003964467 0.007667364 0.1196927
-0.03532648 0.01378541 0.1804394
-0.1015358 -0.005573703 0.3298365
0.03863854 -0.009749147 0.2526568
-0.1027533 -0.005130712 0.3358459
0.03624581 -0.008687902 0.1423561
-0.03405624 0.01356218 0.1452995
0.1287074 -0.0009799444 0.3739532
0.008065569 0.00182375 0.128526
-0.01631354 0.01348168 0.1131294
0.1084844 -0.011956 0.2681151
0.003024126 0.003756413 0.08842111
0.02103338 -0.0001521616 0.1473235
0.002862511 0.003314433 0.09299191
0.02752341 -0.006536451 0.1432266
-0.01668119 0.01418576 0.1080729
0.01948879 0.01559121 0.1296368
0.01838222 -0.002424918 0.1482995
0.00349606 0.003397857 0.08976129
0.003329788 0.003439952 0.08996246
-0.02911985 0.02266702 0.1465669
-0.007785059 0.009028231 0.08884019
-0.01440717 0.005129325 0.1028519
0.003356615 0.00341251 0.09011649
-0.00930254 0.01212022 0.09935119
0.03231645 -0.006429435 0.1403514
-0.03649279 0.01180398 0.1523154
0.002069675 0.003469316 0.1080773
-0.0009348962 0.007346796 0.1117015
-0.0003344518 0.005116574 0.1108786
-0.0005770427 0.005041681 0.1097403
-0.03456371 0.01364634 0.1464822
0.02256477 -0.001648013 0.1422488
0.03207045 -0.006915983 0.1447894
-0.02687238 0.01655039 0.1368406
-0.09548128 -0.001591643 0.2677675
-0.1201891 -0.005360778 0.3577496
0.04083471 -0.01135582 0.2397395
-0.1015258 -0.004852231 0.3244646
-0.09290773 -0.001556878 0.2607364
0.02882875 -0.003348046 0.1511423
0.0277022 -0.005909372 0.1439562
0.02938179 -0.007384336 0.1469585
-0.03576389 0.01182795 0.1450064
5.38913e-05 0.01038591 0.120877
0.03091298 -0.006746209 0.1479395
4.77467e-05 0.005241429 0.1073802
0.002050037 0.004269637 0.106948
0.02647375 -0.003775939 0.1476591
0.03112818 -0.005686244 0.1422589
0.002437005 0.004016144 0.1059574
0.03105706 -0.006413692 0.1426838
0.0313534 -0.006505674 0.1439532
0.0004304377 0.004134649 0.1059268
-0.03687744 0.01692181 0.1954212
0.03325558 -0.00852849 0.2242016
0.04245993 -0.008035963 0.1836347
-0.03568939 0.007092515 0.1681868
-0.07336334 0.001225598 0.2800055
-0.09662579 -0.0004404673 0.259702
0.1412175 0.05395902 0.345788
0.03347556 -0.007059531 0.1501006
0.02190664 -0.002093082 0.1718677
0.009348549 0.0006882109 0.1416949
0.03869923 -0.01085946 0.2241951
0.003132862 0.001511731 0.1315207
0.008125398 0.001626544 0.1312168
0.3035998 0.08882651 0.6311291
0.002302166 0.002615978 0.135479
0.009669057 0.00109527 0.1365111
0.001703503 0.01571563 0.1313651
0.02710833 0.001467249 0.1773345
-0.1177805 -0.005161421 0.3522363
0.000647568 0.003717513 0.1076411
0.148072 0.05206692 0.35373
0.02708047 -0.003315375 0.16612
0.003178431 0.003496187 0.09289158
-0.0003791127 0.005779521 0.1086968
0.02913504 -0.0033244 0.1523239
0.02855517 -0.004015233 0.1450212
-0.03351539 0.01350295 0.1459291
0.003318045 0.00417072 0.1070762
-0.03091034 0.01247027 0.1414197
0.003168138 0.003388836 0.09309614
0.003248286 0.003379573 0.09120745
0.002662414 0.003805994 0.08978626
-0.02113929 0.005864009 0.1156943
0.0009754363 0.003736984 0.1071504
0.02352417 -0.002908441 0.1564131
0.03103391 -0.005922727 0.1436357
-0.002541785 0.007178976 0.08350042
0.02251395 -0.002818836 0.1490191
0.003168215 0.00322472 0.09301922
-0.01917301 0.01274684 0.1088786
0.02317791 -0.002915166 0.1792287
0.001806572 0.004684779 0.1061584
0.02591463 0.03541839 0.1475134
-0.005586949 0.009452862 0.0889176
0.002213899 0.004428225 0.09132206
-0.03365704 0.01311862 0.1443067
0.02270793 -0.002697935 0.1499609
0.02025287 -0.002492253 0.1562813
-0.005373805 0.009314126 0.08818435
-0.006316829 0.01183805 0.09400506
-0.02789292 0.01966283 0.1318565
-0.04329139 0.02796175 0.1633155
-0.02666183 0.02126589 0.1396221
0.002269374 0.004100902 0.1064224
-0.03313596 0.02000606 0.1468141
-7.554232e-05 0.01111038 0.1193106
0.003561403 0.003265218 0.09068128
-0.00545036 0.00942454 0.08907446
0.03186735 -0.0007652401 0.1462296
-0.09701575 0.00279155 0.2627881
0.009919349 0.02681176 0.177668
0.03695949 -0.01146933 0.1655581
0.02663143 0.000414485 0.1621363
0.03245274 -0.005344837 0.1423341
-0.002418904 0.008850595 0.08425958
-0.005290884 0.01069309 0.08988734
0.02379462 0.002122938 0.1646269
-0.05138952 0.03022162 0.17138
-0.008325353 0.0105983 0.09148052
-0.1112539 -0.002584037 0.3161531
-0.03315889 0.01288992 0.1464042
-0.002936074 0.008695601 0.0829334
-0.0006695174 0.006556615 0.1081374
-0.01000273 0.01168643 0.09399071
-0.0281697 0.01556981 0.1329589
0.1520271 0.05471741 0.3560741
-0.04554659 0.006421471 0.2312548
-0.08949052 -0.0004750983 0.2519793
-0.0495852 0.004553506 0.2363402
-0.03601685 0.007998963 0.1432782
-0.06049467 0.001702487 0.268602
-0.02798743 0.01750414 0.1451577
0.02411975 -0.003928345 0.1391693
0.003682681 0.003005223 0.09268557
0.003156404 0.003290227 0.09305453
0.002737802 0.004341274 0.09241236
-0.03477314 0.0113832 0.1483563
-0.002553877 0.008800683 0.08377489
-0.04447408 0.02744636 0.1641161
-0.002611871 0.008807188 0.08353708
-0.02453643 0.01519572 0.1264933
0.03100532 -0.005912661 0.1509617
-0.05272228 0.02667348 0.175786
-0.004938111 0.01024293 0.08807418
-0.03247124 0.0130849 0.1449552
0.03049679 -0.006456782 0.1441621
0.02813103 0.03757179 0.1529086
-0.02858329 0.014718 0.1308231
-0.03515311 0.01437075 0.1763709
-0.01600108 0.02099119 0.1200524
-0.0002904912 0.006877782 0.1217652
-0.1287952 -0.005087081 0.3731288
-0.005114084 0.009205321 0.08788038
-0.009371848 0.01237578 0.1068578
-0.008688162 0.01141064 0.09887443
0.004912386 -0.0002107179 0.1332527
-0.09592146 0.03667905 0.2707431
-0.1641746 0.06062014 0.4399094
-0.1059891 -0.00271129 0.3199771
0.03374066 -0.001187577 0.1511012
0.0004159802 0.004246409 0.1195022
-0.004481027 0.009666801 0.09462291
-0.009354258 0.01195499 0.1024228
-0.04188273 0.00820426 0.2182015
0.02170428 0.003488292 0.1253365
-0.007060938 0.0120377 0.111488
-0.1219945 -0.004465375 0.3574367
-0.009988092 0.01534049 0.1123646
0.01986176 -0.002641573 0.1544931
0.002967849 0.003886063 0.09300192
-0.06878297 0.04199566 0.2092943
-0.01752469 0.01339499 0.1091307
0.05790918 -0.01450386 0.232565
0.003230393 0.00349612 0.09006
-0.007454052 0.009658068 0.0912413
-0.007309513 0.0093389 0.08820267
0.003246947 0.003483555 0.09011175
0.02596201 -0.004740187 0.139248
-0.01359227 0.004676096 0.1037527
0.003045517 0.004437081 0.1060879
0.002265041 0.004555768 0.09131315
0.00324543 0.003493228 0.0899499
0.003357443 0.003487952 0.08949095
0.003356429 0.003412315 0.09011649
0.01924315 -0.002336889 0.1537628
-0.0394704 0.0183679 0.1578467
0.0007636865 0.004140966 0.1071456
0.00288654 0.004436822 0.09296936
0.001447452 0.004492422 0.1058083
-0.03523609 0.02089052 0.1519327
0.005565172 0.004666801 0.1145883
-0.004177179 0.008979122 0.08356008
-0.002789145 0.008213508 0.08245159
0.03247895 -0.005405532 0.1434676
-0.002852393 0.008348214 0.08322687
0.02482672 -0.002676854 0.1611594
-0.004005501 0.009092478 0.08980493
-0.01828505 0.01271459 0.1157788
-0.03500219 0.02461636 0.1436596
-0.01636252 0.0107426 0.1056577
0.01401144 -0.00448882 0.1155265
-0.02250265 0.01614051 0.1285088
-0.002775361 0.008709599 0.08310924
-0.008338307 0.01283955 0.1015967
-0.00456636 0.009032558 0.08576558
-0.01561528 0.0143621 0.1050466
-0.03599974 0.01493062 0.1713533
-0.02548516 0.01599637 0.1331162
0.00736737 0.02033789 0.1321004
-0.1028856 1.970126e-05 0.2714183
-0.03791367 0.02422203 0.1507155
0.02824376 -0.006308619 0.1446529
0.1590026 0.05766252 0.3625077
0.157544 0.05554794 0.3689421
-0.03703195 0.0121317 0.1538293
0.02812368 -0.002488875 0.1498148
-0.006097703 0.01057301 0.09114928
0.02517172 -0.002385348 0.1480094
-0.00554766 0.008886859 0.08869338
-0.04809831 0.02527011 0.1702117
-0.01793759 0.01480017 0.1107131
0.03123831 -0.005718269 0.1418562
-0.006510083 0.01050463 0.08965897
0.02351313 -0.002412588 0.1516925
0.1063057 -0.0001888516 0.3219142
-0.02650524 0.01937704 0.1260068
0.003164546 0.003610588 0.08900527
-0.03385486 0.0121236 0.1455448
-0.01383825 0.004747605 0.1033572
0.04260944 -0.008034704 0.1837741
0.1525148 0.006210124 0.3902884
0.09996301 -0.007054437 0.2631087
-0.008531909 0.01252081 0.09839021
0.0274408 -0.006965353 0.1437707
-0.002420827 0.008846346 0.08423109
0.02724982 -0.005445066 0.1449893
0.002807051 0.004283644 0.09259632
-0.0330192 0.01290479 0.1460539
-0.01532243 0.004437174 0.1063927
-0.03639776 0.01299677 0.1561641
-0.001401556 0.00884292 0.08366045
0.000531483 0.004745306 0.1062615
-0.01342725 0.004713106 0.1034082
-0.002935183 0.008696111 0.08294564
0.00199142 0.007268716 0.09030972
-0.008173467 0.01322677 0.1072017
-0.03101724 0.02150736 0.1344441
-0.01392809 0.01456122 0.1155958
0.0005709275 0.004058859 0.1067007
0.01403175 -0.002654996 0.1174645
-0.002283195 0.007304992 0.08046065
0.02332509 -0.0009583339 0.1443733
0.02630629 -0.0004510108 0.1536137
-0.004639541 0.008974297 0.08540335
-0.0007943219 0.007451819 0.1099175
-0.00401621 0.008822582 0.08462116
-0.02687752 0.02142013 0.1408991
-0.007976625 0.01370644 0.1099385
-0.06817681 0.04155629 0.2079162
-0.0839362 -0.00228932 0.2880569
0.03332505 -0.006097249 0.1901622
-0.03579937 0.02024845 0.1551499
-0.001509519 0.008731753 0.08336443
-0.0005700982 0.005482095 0.1101838
0.007861396 0.0199557 0.125549
0.003610981 0.003339956 0.08982594
0.0006346187 0.004161694 0.1058135
0.003255773 0.003506634 0.08983842
-0.002866831 0.008816776 0.08354007
-0.005446181 0.009197161 0.0864398
0.02715278 -0.006872994 0.1423813
-0.003786293 0.006426387 0.1233625
0.02240665 0.02326698 0.1245648
-0.002518786 0.008917636 0.08387028
0.001887947 0.00369345 0.1066066
-0.002450233 0.008847109 0.08422594
-0.02228571 0.02538829 0.1333305
-0.01608322 0.004780036 0.1062254
0.001001752 0.003507081 0.1065223
-0.005730554 0.009233192 0.09041655
-0.03300525 0.01993453 0.1464889
-0.004011226 0.00910221 0.08986664
-0.03410104 0.01345508 0.1518605
0.001348507 0.003588287 0.1095129
-0.002843551 0.008733002 0.08321419
-0.001773487 0.008915422 0.08409453
0.005164266 0.0170499 0.1071808
0.02206716 -0.002147043 0.1485998
-0.002488433 0.008805349 0.08350824
-0.006018391 0.0113882 0.0915108
-0.002433157 0.008910278 0.08451036
0.003722421 0.004423607 0.09511378
-0.01645551 0.01407796 0.107237
0.02401268 -0.004766649 0.1795719
-0.002524371 0.008897228 0.08374029
-0.007490382 0.01307617 0.09688575
-0.006417203 0.009639349 0.08736674
0.007921125 0.003546594 0.1234888
0.0328161 -0.001764089 0.171044
-0.03559236 0.01851274 0.1549557
-0.05156384 0.02594398 0.1698907
-0.006889358 0.0112844 0.09460954
0.002320304 0.005194724 0.1071446
-0.03478102 0.007399617 0.138663
0.00637202 0.00695092 0.1008492
-0.03535857 0.007513064 0.1407333
-0.02676004 0.01902469 0.1297341
-0.01403458 0.01100433 0.1045243
-0.001596621 0.007226188 0.08281509
0.04276664 -0.003339725 0.1837127
0.122351 0.04319548 0.3068026
0.0003113665 0.01139347 0.1261207
-0.03456827 0.01224077 0.1472008
-0.02407519 0.01417121 0.1280866
0.03155179 -0.006070333 0.1431308
0.04000614 -0.002747064 0.1772022
-0.04055861 0.01972737 0.1700349
-0.03513494 0.01190094 0.1437417
-0.01522101 0.01119038 0.1050978
-0.0006032754 0.005999919 0.1101331
-7.472093e-05 0.00493306 0.1090561
-0.005204892 0.009263209 0.08817548
0.03418723 -0.001602265 0.1473841
-0.006898603 0.009916918 0.08855075
-0.003564127 0.008947289 0.08536085
0.02214883 -0.002032661 0.1513726
-0.003583199 0.009068336 0.08645698
-0.006616152 0.01201082 0.09272183
-0.02661239 0.0153154 0.1399571
0.002314752 0.007631426 0.08922948
-0.03383446 0.008146796 0.1371422
0.0305421 -0.004277559 0.1427451
0.0003372562 0.00407459 0.1071182
-0.01457676 0.00502594 0.1031629
-0.005230536 0.009288932 0.08837026
-0.01560747 0.01429838 0.1036719
0.0009779985 0.01441234 0.1209892
0.0006218146 0.004816477 0.1230125
-0.06098865 0.03637617 0.191775
0.00271794 0.004730952 0.09231436
-0.00119888 0.006641153 0.1097258
0.00810626 0.003589165 0.1241728
0.002962545 0.004024134 0.09321074
0.009979348 0.0006937254 0.1399507
0.009688264 0.0009140781 0.1353505
-0.07033065 0.001871542 0.3048888
-0.009479248 0.01153201 0.09638748
-0.03753562 0.007033786 0.173275
-0.02335815 0.01537862 0.1174982
-0.06273363 0.03980003 0.2095372
-0.02599863 0.01522256 0.1462175
0.1043883 0.1376269 0.4602238
-0.1723827 0.06506591 0.4608028
-0.01372835 0.0109019 0.1051111
-0.0524493 0.03429095 0.1873493
-0.1001333 -0.004286998 0.339647
-0.03556399 0.02410059 0.1524889
-0.007132715 0.01219731 0.09316219
-0.1819266 -0.01395831 0.5111693
0.005338564 0.005304012 0.1152108
-0.1217974 -0.008023487 0.38268
-0.00537445 0.009584552 0.09088533
-0.04534899 0.02401281 0.186263
0.003265702 0.003465757 0.090425
-0.0004807832 0.00560384 0.1147013
0.003622154 0.003265911 0.09053257
-0.0305433 0.01908631 0.1413322
0.03101267 -0.00596875 0.1419813
-0.01173063 0.01263637 0.1009238
0.02829826 -0.003244664 0.1511471
-0.002458409 0.008891974 0.08439908
0.002013878 0.001744545 0.1304794
-0.002867628 0.008060182 0.08139875
-0.03672926 0.0180032 0.1555194
0.01838533 -0.001403328 0.1549581
-0.04120528 0.01410712 0.1877898
-0.008379126 0.01322379 0.1069345
0.003110438 0.003452677 0.09286695
-0.07538331 0.04199332 0.2209086
-0.04313327 0.03124046 0.1862099
-0.01500125 0.004321466 0.1065744
0.02961224 -0.006549863 0.1437428
-0.002921011 0.008143454 0.08185279
-0.01913009 0.02240554 0.1235702
0.04918847 -0.004127183 0.1665858
0.001834848 0.003958494 0.1060853
-0.007393349 0.009446797 0.08913224
0.02289444 -0.002991313 0.1472592
0.002018484 0.004541105 0.1049346
0.04703414 -0.003341574 0.1713551
0.0007704021 0.003272144 0.1323899
0.001982193 0.007135798 0.08829926
-0.02860503 0.01952363 0.1271279
-0.003168604 0.008935342 0.08594533
0.05913693 0.005877073 0.1967376
-0.004642117 0.008540295 0.08356678
-0.03641969 0.01231602 0.145157
-0.001196657 0.006649829 0.08163975
-0.006942871 0.01075799 0.09012499
0.02216349 -0.002703451 0.1450366
0.003405408 0.003450591 0.08967749
-0.01364961 0.004650309 0.1034801
0.02112198 -0.001955379 0.1469016
-0.01728444 0.01458921 0.1101209
-0.006580103 0.009155399 0.08778469
-0.01176944 0.009831888 0.1029964
-0.007233003 0.01421454 0.09888607
-0.007493643 0.01094139 0.09373934
0.001744693 0.009225139 0.1102641
0.005408724 0.002823844 0.1182192
-0.008455916 0.01327176 0.1072848
0.03187864 0.004052652 0.1456659
0.002050254 0.004739479 0.1060762
0.003528927 0.002996396 0.09352542
0.003761319 0.003158911 0.09080011
0.02486174 -0.003356208 0.1557346
-0.04327235 0.0184872 0.2089497
-0.0212955 0.01663394 0.1173168
-0.003173204 0.009022146 0.08635431
0.0009791177 0.00411353 0.1224167
-0.008153274 0.01083459 0.0942948
-0.04502 0.02405025 0.1638187
-0.004370501 0.009451213 0.08777376
0.004002256 0.002908965 0.0921499
-0.09401313 0.0371042 0.2747498
-0.09598585 -0.001723047 0.2641467
0.02189728 0.001563694 0.1474948
-0.01568615 0.01050206 0.1045611
0.04210644 -0.009120117 0.1612746
0.01043335 0.002718408 0.1340932
0.02632501 -0.005340981 0.1963588
0.006543978 0.002220161 0.126219
0.003900258 0.002495406 0.09569075
